# .PCD v.7 - Point Cloud Data file format
FIELDS x y z rgb imX imY
SIZE 4 4 4 4 4 4
TYPE F F F F F F
COUNT 1 1 1 1 1 1
WIDTH 837
HEIGHT 1
VIEWPOINT 0 0 0 1 0 0 0
POINTS 837
DATA ascii
-0.015909746 0.69800001 0.012238266 5.8857492e-39 307 230
-0.01468592 0.69800001 0.012238266 5.7935564e-39 308 230
-0.013462093 0.69800001 0.012238266 5.9779477e-39 309 230
-0.012238266 0.69800001 0.012238266 6.3460071e-39 310 230
-0.01101444 0.69800001 0.012238266 6.9913765e-39 311 230
-0.0097906133 0.69800001 0.012238266 7.6396046e-39 312 230
-0.0085667865 0.69800001 0.012238266 7.6396046e-39 313 230
-0.0073429602 0.69800001 0.012238266 8.0955409e-39 314 230
-0.006119133 0.69800001 0.012238266 7.3579758e-39 315 230
-0.0048953067 0.69800001 0.012238266 6.7137008e-39 316 230
-0.0036714801 0.69800001 0.012238266 6.5289508e-39 317 230
-0.0024476533 0.69800001 0.012238266 5.7031558e-39 318 230
-0.0012238267 0.69800001 0.012238266 5.5191247e-39 319 230
0 0.69800001 0.012238266 5.2439826e-39 320 230
0.0012238267 0.69800001 0.012238266 5.1517869e-39 321 230
0.0024476533 0.69800001 0.012238266 5.059957e-39 322 230
0.0036714801 0.69800001 0.012238266 5.059957e-39 323 230
0.0048953067 0.69800001 0.012238266 4.6929766e-39 324 230
0.006119133 0.69800001 0.012238266 4.6929766e-39 325 230
0.0073639993 0.69999999 0.012273333 4.4178316e-39 326 230
0.0085913334 0.69999999 0.012273333 4.5100273e-39 327 230
0.0098607466 0.70300001 0.012325933 4.5107489e-39 328 230
0.011109119 0.704 0.012343466 4.6029446e-39 329 230
0.012343466 0.704 0.012343466 4.6958633e-39 330 230
0.013616386 0.70599997 0.012378532 4.7880589e-39 331 230
0.01487528 0.70700002 0.012396066 5.0653702e-39 332 230
0.01613768 0.708 0.0124136 5.3419585e-39 333 230
0.01745268 0.71100003 0.0124662 5.5274218e-39 334 230
0.018751899 0.713 0.012501267 5.8040087e-39 335 230
0.020114239 0.71700001 0.0125714 5.6214097e-39 336 230
0.021430992 0.71899998 0.012606465 5.1607903e-39 337 230
0.02262852 0.71700001 0.0125714 3.1353927e-39 338 230
0.02388566 0.71700001 0.0125714 3.7807621e-39 339 230
0.0251428 0.71700001 0.0125714 9.044915e-39 340 230
-0.042742759 0.71700001 0.01131426 8.6635222e-39 286 231
-0.041254178 0.713 0.011251139 7.6490101e-39 287 231
-0.039891839 0.71100003 0.01121958 7.4638831e-39 288 231
-0.038590867 0.70999998 0.011203799 6.8185137e-39 289 231
-0.037345998 0.70999998 0.011203799 7.4581168e-39 290 231
-0.03599944 0.708 0.01117224 6.904943e-39 291 231
-0.034708988 0.70700002 0.011156459 6.5350745e-39 292 231
-0.033422034 0.70599997 0.011140679 6.3503231e-39 293 231
-0.032184184 0.70599997 0.011140679 5.8893492e-39 294 231
-0.030858666 0.704 0.011109119 5.8893492e-39 295 231
-0.029498078 0.70099998 0.011061779 5.9804658e-39 296 231
-0.028228667 0.69999999 0.011045999 5.7042376e-39 297 231
-0.026924185 0.69800001 0.01101444 5.7031586e-39 298 231
-0.025700359 0.69800001 0.01101444 5.5191275e-39 299 231
-0.024476532 0.69800001 0.01101444 5.3350992e-39 300 231
-0.023252707 0.69800001 0.01101444 5.3350992e-39 301 231
-0.02202888 0.69800001 0.01101444 5.2418302e-39 302 231
-0.020805053 0.69800001 0.01101444 5.1496345e-39 303 231
-0.019581227 0.69800001 0.01101444 4.7805031e-39 304 231
-0.0183574 0.69800001 0.01101444 4.6883075e-39 305 231
-0.017133573 0.69800001 0.01101444 4.6879543e-39 306 231
-0.015909746 0.69800001 0.01101444 4.5957573e-39 307 231
-0.01468592 0.69800001 0.01101444 4.6883103e-39 308 231
-0.013442807 0.69700003 0.01099866 5.0567326e-39 309 231
-0.012220734 0.69700003 0.01099866 5.5187716e-39 310 231
-0.01099866 0.69700003 0.01099866 6.8095104e-39 311 231
-0.0097765867 0.69700003 0.01099866 7.9179795e-39 312 231
-0.0085545136 0.69700003 0.01099866 8.1949265e-39 313 231
-0.00733244 0.69700003 0.01099866 8.927077e-39 314 231
-0.0061103669 0.69700003 0.01099866 8.3739046e-39 315 231
-0.0048882933 0.69700003 0.01099866 7.9114999e-39 316 231
-0.00366622 0.69700003 0.01099866 7.3583261e-39 317 231
-0.0024476533 0.69800001 0.01101444 6.3467134e-39 318 231
-0.0012238267 0.69800001 0.01101444 6.0701279e-39 319 231
0 0.69800001 0.01101444 5.5187716e-39 320 231
0.0012220733 0.69700003 0.01099866 5.4265759e-39 321 231
0.0024441467 0.69700003 0.01099866 5.0588822e-39 322 231
0.0036714801 0.69800001 0.01101444 5.0588822e-39 323 231
0.0048953067 0.69800001 0.01101444 4.7840932e-39 324 231
0.006119133 0.69800001 0.01101444 4.8762888e-39 325 231
0.0073639993 0.69999999 0.011045999 4.6011439e-39 326 231
0.0085913334 0.69999999 0.011045999 4.6011439e-39 327 231
0.0098607466 0.70300001 0.01109334 4.4178316e-39 328 231
0.011109119 0.704 0.011109119 4.5100273e-39 329 231
0.012343466 0.704 0.011109119 4.6029446e-39 330 231
0.013577812 0.704 0.011109119 4.6951402e-39 331 231
0.014854239 0.70599997 0.011140679 4.7880617e-39 332 231
0.016092092 0.70599997 0.011140679 5.0646486e-39 333 231
0.017354494 0.70700002 0.011156459 5.2504818e-39 334 231
0.0186204 0.708 0.01117224 5.5274274e-39 335 231
0.01994592 0.71100003 0.01121958 5.3448298e-39 336 231
0.021371379 0.71700001 0.01131426 5.5288609e-39 337 231
0.02262852 0.71700001 0.01131426 4.9753368e-39 338 231
0.02388566 0.71700001 0.01131426 1.7484898e-39 339 231
0.0251428 0.71700001 0.01131426 5.5385915e-39 340 231
0.02647358 0.71899998 0.01134582 1.4113144e-38 341 231
-0.043631699 0.71100003 0.0099729598 8.4838126e-39 285 232
-0.042385083 0.71100003 0.0099729598 7.461735e-39 286 232
-0.041138459 0.71100003 0.0099729598 6.2631918e-39 287 232
-0.039835732 0.70999998 0.0099589331 7.9198264e-39 288 232
-0.038590867 0.70999998 0.0099589331 7.8272707e-39 289 232
-0.037345998 0.70999998 0.0099589331 7.0014603e-39 290 232
-0.03599944 0.708 0.0099308798 6.6323176e-39 291 232
-0.034708988 0.70700002 0.0099168532 6.6297911e-39 292 232
-0.033422034 0.70599997 0.0099028256 5.8918659e-39 293 232
-0.032093015 0.704 0.0098747732 5.9815476e-39 294 232
-0.030858666 0.704 0.0098747732 5.7049593e-39 295 232
-0.029455997 0.69999999 0.0098186666 5.8871968e-39 296 232
-0.028228667 0.69999999 0.0098186666 5.8871968e-39 297 232
-0.026924185 0.69800001 0.0097906133 5.7020838e-39 298 232
-0.025700359 0.69800001 0.0097906133 5.6098882e-39 299 232
-0.024441468 0.69700003 0.0097765867 5.4247795e-39 300 232
-0.023219392 0.69700003 0.0097765867 5.4247795e-39 301 232
-0.02202888 0.69800001 0.0097906133 5.0563641e-39 302 232
-0.020805053 0.69800001 0.0097906133 4.9641685e-39 303 232
-0.019581227 0.69800001 0.0097906133 4.5964636e-39 304 232
-0.0183574 0.69800001 0.0097906133 4.5964636e-39 305 232
-0.017133573 0.69800001 0.0097906133 4.7797758e-39 306 232
-0.015886955 0.69700003 0.0097765867 4.8719728e-39 307 232
-0.01466488 0.69700003 0.0097765867 4.9645244e-39 308 232
-0.013423519 0.69599998 0.0097625591 5.1489157e-39 309 232
-0.0122032 0.69599998 0.0097625591 5.7027929e-39 310 232
-0.010982879 0.69599998 0.0097625591 6.7165847e-39 311 232
-0.0097625591 0.69599998 0.0097625591 8.0076584e-39 312 232
-0.0085545136 0.69700003 0.0097765867 8.099854e-39 313 232
-0.0073219193 0.69599998 0.0097625591 9.0192866e-39 314 232
-0.0061015999 0.69599998 0.0097625591 8.6508628e-39 315 232
-0.0048882933 0.69700003 0.0097765867 8.0977031e-39 316 232
-0.00366622 0.69700003 0.0097765867 7.0839099e-39 317 232
-0.0024441467 0.69700003 0.0097765867 6.4385559e-39 318 232
-0.0012220733 0.69700003 0.0097765867 6.0701335e-39 319 232
0 0.69700003 0.0097765867 5.5191275e-39 320 232
0.0012220733 0.69700003 0.0097765867 5.4265731e-39 321 232
0.0024441467 0.69700003 0.0097765867 5.151431e-39 322 232
0.0036714801 0.69800001 0.0097906133 5.0592354e-39 323 232
0.0048953067 0.69800001 0.0097906133 4.7840932e-39 324 232
0.006119133 0.69800001 0.0097906133 4.7840932e-39 325 232
0.0073639993 0.69999999 0.0098186666 4.5089483e-39 326 232
0.0085913334 0.69999999 0.0098186666 4.3249157e-39 327 232
0.0098607466 0.70300001 0.0098607466 4.5089483e-39 328 232
0.01109334 0.70300001 0.0098607466 4.6011439e-39 329 232
0.012343466 0.704 0.0098747732 4.6936983e-39 330 232
0.013577812 0.704 0.0098747732 4.7858939e-39 331 232
0.014812159 0.704 0.0098747732 4.7862568e-39 332 232
0.016092092 0.70599997 0.0099028256 5.0632038e-39 333 232
0.017329946 0.70599997 0.0099028256 5.0657234e-39 334 232
0.018594101 0.70700002 0.0099168532 5.250116e-39 335 232
0.019917866 0.70999998 0.0099589331 5.3430277e-39 336 232
0.021281958 0.71399999 0.01001504 5.4355821e-39 337 232
0.022596961 0.71600002 0.010043093 5.3423089e-39 338 232
0.023852346 0.71600002 0.010043093 5.5101298e-40 339 232
0.025107734 0.71600002 0.010043093 8.4235834e-40 340 232
0.02639994 0.71700001 0.01005712 1.1905834e-38 341 232
-0.045004558 0.713 0.0087508867 1.3366218e-38 284 233
-0.043631699 0.71100003 0.0087263398 8.0188716e-39 285 233
-0.042385083 0.71100003 0.0087263398 8.3736075e-39 286 233
-0.041138459 0.71100003 0.0087263398 8.5583589e-39 287 233
-0.039835732 0.70999998 0.0087140659 8.5633756e-39 288 233
-0.038590867 0.70999998 0.0087140659 8.9321567e-39 289 233
-0.0372408 0.708 0.008689519 8.2893054e-39 290 233
-0.035948593 0.70700002 0.008677247 7.7361316e-39 291 233
-0.034659892 0.70599997 0.0086649731 7.3641093e-39 292 233
-0.03332736 0.704 0.0086404262 6.7187399e-39 293 233
-0.032093015 0.704 0.0086404262 5.8879058e-39 294 233
-0.030727165 0.70099998 0.0086036054 5.7953515e-39 295 233
-0.029455997 0.69999999 0.0085913334 5.7028055e-39 296 233
-0.028148014 0.69800001 0.0085667865 5.7028055e-39 297 233
-0.026924185 0.69800001 0.0085667865 5.7020894e-39 298 233
-0.025700359 0.69800001 0.0085667865 5.2411113e-39 299 233
-0.024441468 0.69700003 0.0085545136 5.2396764e-39 300 233
-0.023219392 0.69700003 0.0085545136 4.9634496e-39 301 233
-0.02202888 0.69800001 0.0085667865 4.779773e-39 302 233
-0.020805053 0.69800001 0.0085667865 4.5957419e-39 303 233
-0.019553173 0.69700003 0.0085545136 4.4131485e-39 304 233
-0.018331099 0.69700003 0.0085545136 4.2283985e-39 305 233
-0.017109027 0.69700003 0.0085545136 4.779773e-39 306 233
-0.015864158 0.69599998 0.0085422397 4.779773e-39 307 233
-0.014643839 0.69599998 0.0085422397 4.5971838e-39 308 233
-0.013423519 0.69599998 0.0085422397 4.7815751e-39 309 233
-0.0122032 0.69599998 0.0085422397 4.8759231e-39 310 233
-0.010982879 0.69599998 0.0085422397 5.8897149e-39 311 233
-0.0097625591 0.69599998 0.0085422397 6.5350717e-39 312 233
-0.0085422397 0.69599998 0.0085422397 7.1804411e-39 313 233
-0.0073219193 0.69599998 0.0085422397 8.0977059e-39 314 233
-0.0061015999 0.69599998 0.0085422397 8.2820971e-39 315 233
-0.0048882933 0.69700003 0.0085545136 8.2799349e-39 316 233
-0.00366622 0.69700003 0.0085545136 7.6345655e-39 317 233
-0.0024441467 0.69700003 0.0085545136 6.6222241e-39 318 233
-0.0012220733 0.69700003 0.0085545136 6.3456386e-39 319 233
0 0.69700003 0.0085545136 5.427292e-39 320 233
0.0012220733 0.69700003 0.0085545136 5.3350964e-39 321 233
0.0024441467 0.69700003 0.0085545136 5.0592354e-39 322 233
0.0036714801 0.69800001 0.0085667865 5.0592354e-39 323 233
0.0048953067 0.69800001 0.0085667865 4.7833729e-39 324 233
0.006119133 0.69800001 0.0085667865 4.7833729e-39 325 233
0.0073429602 0.69800001 0.0085667865 4.5082308e-39 326 233
0.0085913334 0.69999999 0.0085913334 4.6004278e-39 327 233
0.0098186666 0.69999999 0.0085913334 4.3256388e-39 328 233
0.011061779 0.70099998 0.0086036054 4.3256388e-39 329 233
0.012290866 0.70099998 0.0086036054 4.1426867e-39 330 233
0.013558527 0.70300001 0.0086281532 4.235241e-39 331 233
0.014812159 0.704 0.0086404262 4.3270835e-39 332 233
0.016046507 0.704 0.0086404262 4.4192792e-39 333 233
0.017280852 0.704 0.0086404262 4.5129195e-39 334 233
0.018567799 0.70599997 0.0086649731 4.7895064e-39 335 233
0.019833706 0.70700002 0.008677247 4.8827755e-39 336 233
0.021073313 0.70700002 0.008677247 4.8827755e-39 337 233
0.022439159 0.71100003 0.0087263398 5.2490328e-39 338 233
0.02378572 0.71399999 0.0087631596 1.745959e-39 339 233
0.025037598 0.71399999 0.0087631596 1.5626566e-39 340 233
0.02639994 0.71700001 0.0087999795 1.3364056e-38 341 233
-0.046449307 0.71600002 0.00753232 1.4108822e-38 283 234
-0.045004558 0.713 0.0075007593 1.3272574e-38 284 234
-0.043754432 0.713 0.0075007593 7.925227e-39 285 234
-0.042385083 0.71100003 0.0074797203 9.6553584e-39 286 234
-0.041138459 0.71100003 0.0074797203 1.1130847e-38 287 234
-0.039835732 0.70999998 0.0074691991 8.750306e-39 288 234
-0.038482159 0.708 0.0074481601 8.9346972e-39 289 234
-0.0372408 0.708 0.0074481601 8.29472e-39 290 234
-0.035948593 0.70700002 0.0074376399 7.9255774e-39 291 234
-0.034659892 0.70599997 0.0074271196 7.272655e-39 292 234
-0.03332736 0.704 0.0074060797 6.1663088e-39 293 234
-0.031956252 0.70099998 0.0073745195 5.7053264e-39 294 234
-0.030683333 0.69999999 0.0073639993 5.1521527e-39 295 234
-0.029371841 0.69800001 0.0073429602 5.5187744e-39 296 234
-0.028148014 0.69800001 0.0073429602 5.5187744e-39 297 234
-0.026885614 0.69700003 0.00733244 5.4265787e-39 298 234
-0.025663542 0.69700003 0.00733244 5.2418274e-39 299 234
-0.024441468 0.69700003 0.00733244 5.05672e-39 300 234
-0.023219392 0.69700003 0.00733244 4.87197e-39 301 234
-0.02199732 0.69700003 0.00733244 4.5964607e-39 302 234
-0.020775247 0.69700003 0.00733244 4.6886578e-39 303 234
-0.019525118 0.69599998 0.0073219193 4.4131485e-39 304 234
-0.018304799 0.69599998 0.0073219193 4.2283985e-39 305 234
-0.017084479 0.69599998 0.0073219193 4.779773e-39 306 234
-0.015864158 0.69599998 0.0073219193 4.5957419e-39 307 234
-0.014643839 0.69599998 0.0073219193 4.5964607e-39 308 234
-0.013384946 0.69400001 0.0073008798 4.7808534e-39 309 234
-0.012168133 0.69400001 0.0073008798 5.4254927e-39 310 234
-0.01095132 0.69400001 0.0073008798 5.886831e-39 311 234
-0.0097345067 0.69400001 0.0073008798 6.7155029e-39 312 234
-0.0085422397 0.69599998 0.0073219193 6.9917296e-39 313 234
-0.0073008798 0.69400001 0.0073008798 7.6338621e-39 314 234
-0.0060840664 0.69400001 0.0073008798 8.0022858e-39 315 234
-0.0048812795 0.69599998 0.0073219193 7.4519889e-39 316 234
-0.0036609597 0.69599998 0.0073219193 6.8066195e-39 317 234
-0.0024406398 0.69599998 0.0073219193 5.7957074e-39 318 234
-0.0012203199 0.69599998 0.0073219193 5.5191219e-39 319 234
0 0.69599998 0.0073219193 5.3350964e-39 320 234
0.0012203199 0.69599998 0.0073219193 5.2428993e-39 321 234
0.0024406398 0.69599998 0.0073219193 5.0592354e-39 322 234
0.00366622 0.69700003 0.00733244 4.9670383e-39 323 234
0.0048882933 0.69700003 0.00733244 4.6918934e-39 324 234
0.0061103669 0.69700003 0.00733244 4.6918934e-39 325 234
0.0073429602 0.69800001 0.0073429602 4.3249129e-39 326 234
0.0085913334 0.69999999 0.0073639993 4.3249129e-39 327 234
0.0098186666 0.69999999 0.0073639993 4.2334362e-39 328 234
0.011061779 0.70099998 0.0073745195 4.2334362e-39 329 234
0.012290866 0.70099998 0.0073745195 4.1423237e-39 330 234
0.013558527 0.70300001 0.0073955595 4.3263549e-39 331 234
0.014812159 0.704 0.0074060797 4.4178344e-39 332 234
0.016046507 0.704 0.0074060797 4.6022257e-39 333 234
0.017280852 0.704 0.0074060797 4.695143e-39 334 234
0.018567799 0.70599997 0.0074271196 4.9713711e-39 335 234
0.019833706 0.70700002 0.0074376399 5.1561211e-39 336 234
0.021073313 0.70700002 0.0074376399 5.1561211e-39 337 234
0.022407599 0.70999998 0.0074691991 5.1561155e-39 338 234
0.023752406 0.713 0.0075007593 3.4969543e-39 339 234
0.025037598 0.71399999 0.0075112795 2.5786036e-39 340 234
-0.046449307 0.71600002 0.0062769335 1.3831512e-38 283 235
-0.045004558 0.713 0.0062506334 1.3364403e-38 284 235
-0.043754432 0.713 0.0062506334 8.6624263e-39 285 235
-0.042385083 0.71100003 0.0062330998 9.9326529e-39 286 235
-0.041138459 0.71100003 0.0062330998 1.1500337e-38 287 235
-0.039835732 0.70999998 0.0062243328 9.0279662e-39 288 235
-0.038482159 0.708 0.0062067998 9.0279662e-39 289 235
-0.0372408 0.708 0.0062067998 8.6624263e-39 290 235
-0.035897743 0.70599997 0.0061892662 8.8468176e-39 291 235
-0.034561705 0.704 0.0061717331 6.5383367e-39 292 235
-0.03332736 0.704 0.0061717331 5.6160217e-39 293 235
-0.031910665 0.69999999 0.0061366665 5.6120546e-39 294 235
-0.030595668 0.69800001 0.006119133 5.519859e-39 295 235
-0.029371841 0.69800001 0.006119133 5.2439854e-39 296 235
-0.028107686 0.69700003 0.0061103669 5.336181e-39 297 235
-0.026885614 0.69700003 0.0061103669 5.3361782e-39 298 235
-0.025626717 0.69599998 0.0061015999 5.0595913e-39 299 235
-0.0244064 0.69599998 0.0061015999 5.1496317e-39 300 235
-0.023186078 0.69599998 0.0061015999 4.9652405e-39 301 235
-0.021965759 0.69599998 0.0061015999 4.7808534e-39 302 235
-0.020745439 0.69599998 0.0061015999 4.6886578e-39 303 235
-0.019525118 0.69599998 0.0061015999 4.5042651e-39 304 235
-0.018304799 0.69599998 0.0061015999 4.5964607e-39 305 235
-0.017084479 0.69599998 0.0061015999 4.4127926e-39 306 235
-0.015818574 0.69400001 0.0060840664 4.4127926e-39 307 235
-0.01460176 0.69400001 0.0060840664 4.5039092e-39 308 235
-0.013384946 0.69400001 0.0060840664 4.6886606e-39 309 235
-0.012168133 0.69400001 0.0060840664 5.0574389e-39 310 235
-0.01095132 0.69400001 0.0060840664 5.3340272e-39 311 235
-0.0097345067 0.69400001 0.0060840664 5.7942851e-39 312 235
-0.0085176928 0.69400001 0.0060840664 6.0705118e-39 313 235
-0.0073008798 0.69400001 0.0060840664 6.0708678e-39 314 235
-0.0060840664 0.69400001 0.0060840664 6.2552604e-39 315 235
-0.0048672534 0.69400001 0.0060840664 6.1634165e-39 316 235
-0.0036504399 0.69400001 0.0060840664 5.886831e-39 317 235
-0.0024406398 0.69599998 0.0061015999 5.3350964e-39 318 235
-0.0012203199 0.69599998 0.0061015999 5.2428993e-39 319 235
0 0.69599998 0.0061015999 4.8748399e-39 320 235
0.0012203199 0.69599998 0.0061015999 4.8748399e-39 321 235
0.0024406398 0.69599998 0.0061015999 4.5989789e-39 322 235
0.00366622 0.69700003 0.0061103669 4.6911745e-39 323 235
0.0048882933 0.69700003 0.0061103669 4.5085839e-39 324 235
0.0061103669 0.69700003 0.0061103669 4.5085839e-39 325 235
0.0073429602 0.69800001 0.006119133 4.2334362e-39 326 235
0.0085667865 0.69800001 0.006119133 4.2334362e-39 327 235
0.0098186666 0.69999999 0.0061366665 4.0501267e-39 328 235
0.011061779 0.70099998 0.0061454331 4.0501267e-39 329 235
0.012325933 0.70300001 0.0061629666 3.958294e-39 330 235
0.013558527 0.70300001 0.0061629666 3.958294e-39 331 235
0.014812159 0.704 0.0061717331 4.1426867e-39 332 235
0.016046507 0.704 0.0061717331 4.1426867e-39 333 235
0.017280852 0.704 0.0061717331 4.2348851e-39 334 235
0.018515198 0.704 0.0061717331 4.6036662e-39 335 235
0.019805651 0.70599997 0.0061892662 4.5121951e-39 336 235
0.021043506 0.70599997 0.0061892662 4.6043907e-39 337 235
0.022344479 0.708 0.0062067998 4.6972954e-39 338 235
0.023685781 0.71100003 0.0062330998 3.8675347e-39 339 235
0.025037598 0.71399999 0.0062593995 3.2250478e-39 340 235
-0.046643924 0.71899998 0.0050425865 1.3554571e-38 283 236
-0.045067675 0.71399999 0.0050075199 1.3181456e-38 284 236
-0.043631699 0.71100003 0.0049864799 9.6780202e-39 285 236
-0.042385083 0.71100003 0.0049864799 1.1133718e-38 286 236
-0.041138459 0.71100003 0.0049864799 1.1502502e-38 287 236
-0.039835732 0.70999998 0.0049794666 9.1205276e-39 288 236
-0.038482159 0.708 0.0049654399 8.7521052e-39 289 236
-0.037188202 0.70700002 0.0049584266 8.3851332e-39 290 236
-0.035897743 0.70599997 0.0049514128 7.924155e-39 291 236
-0.034561705 0.704 0.0049373866 5.7103739e-39 292 236
-0.03318534 0.70099998 0.0049163462 5.3412327e-39 293 236
-0.031910665 0.69999999 0.0049093333 5.5212953e-39 294 236
-0.030595668 0.69800001 0.0048953067 5.2443483e-39 295 236
-0.029371841 0.69800001 0.0048953067 5.2439854e-39 296 236
-0.028107686 0.69700003 0.0048882933 5.336181e-39 297 236
-0.026885614 0.69700003 0.0048882933 5.5202093e-39 298 236
-0.025626717 0.69599998 0.0048812795 5.3361782e-39 299 236
-0.0244064 0.69599998 0.0048812795 5.2429036e-39 300 236
-0.023186078 0.69599998 0.0048812795 5.2429036e-39 301 236
-0.021965759 0.69599998 0.0048812795 4.9663195e-39 302 236
-0.020745439 0.69599998 0.0048812795 4.7819282e-39 303 236
-0.019525118 0.69599998 0.0048812795 4.597181e-39 304 236
-0.018304799 0.69599998 0.0048812795 4.597181e-39 305 236
-0.017035386 0.69400001 0.0048672534 4.597181e-39 306 236
-0.015818574 0.69400001 0.0048672534 4.597181e-39 307 236
-0.01460176 0.69400001 0.0048672534 4.4131457e-39 308 236
-0.013384946 0.69400001 0.0048672534 4.5971782e-39 309 236
-0.012168133 0.69400001 0.0048672534 4.9645244e-39 310 236
-0.01095132 0.69400001 0.0048672534 5.05672e-39 311 236
-0.0097345067 0.69400001 0.0048672534 5.5166192e-39 312 236
-0.0085176928 0.69400001 0.0048672534 5.6091749e-39 313 236
-0.0073008798 0.69400001 0.0048672534 5.609891e-39 314 236
-0.0060840664 0.69400001 0.0048672534 5.7020866e-39 315 236
-0.0048672534 0.69400001 0.0048672534 5.5173395e-39 316 236
-0.0036504399 0.69400001 0.0048672534 5.2411113e-39 317 236
-0.0024336267 0.69400001 0.0048672534 4.9663223e-39 318 236
-0.0012168133 0.69400001 0.0048672534 4.8737679e-39 319 236
0 0.69599998 0.0048812795 4.59826e-39 320 236
0.0012203199 0.69599998 0.0048812795 4.59826e-39 321 236
0.0024406398 0.69599998 0.0048812795 4.5067861e-39 322 236
0.0036609597 0.69599998 0.0048812795 4.5989817e-39 323 236
0.0048812795 0.69599998 0.0048812795 4.4160324e-39 324 236
0.0061015999 0.69599998 0.0048812795 4.4160324e-39 325 236
0.00733244 0.69700003 0.0048882933 4.0501267e-39 326 236
0.0085667865 0.69800001 0.0048953067 3.9579311e-39 327 236
0.0098186666 0.69999999 0.0049093333 3.7742601e-39 328 236
0.011061779 0.70099998 0.0049163462 3.7742601e-39 329 236
0.012290866 0.70099998 0.0049163462 3.7742629e-39 330 236
0.013558527 0.70300001 0.0049303733 3.958294e-39 331 236
0.014791119 0.70300001 0.0049303733 4.1419678e-39 332 236
0.016023712 0.70300001 0.0049303733 4.1419678e-39 333 236
0.017280852 0.704 0.0049373866 4.1426895e-39 334 236
0.018515198 0.704 0.0049373866 4.3270807e-39 335 236
0.019805651 0.70599997 0.0049514128 4.3277996e-39 336 236
0.021043506 0.70599997 0.0049514128 4.512551e-39 337 236
0.022312919 0.70700002 0.0049584266 4.6050998e-39 338 236
0.023652466 0.70999998 0.0049794666 4.4203484e-39 339 236
0.025037598 0.71399999 0.0050075199 3.8700613e-39 340 236
-0.045067675 0.71399999 0.0037556398 1.2538606e-38 284 237
-0.043631699 0.71100003 0.0037398601 1.0602497e-38 285 237
-0.042385083 0.71100003 0.0037398601 1.2241508e-38 286 237
-0.041080594 0.70999998 0.0037345996 1.0858574e-38 287 237
-0.039723519 0.708 0.00372408 8.4744449e-39 288 237
-0.038482159 0.708 0.00372408 7.6443255e-39 289 237
-0.037188202 0.70700002 0.0037188199 6.9092828e-39 290 237
-0.035796054 0.704 0.0037030398 6.3561091e-39 291 237
-0.034512613 0.70300001 0.0036977797 5.2475951e-39 292 237
-0.03318534 0.70099998 0.0036872597 5.2475951e-39 293 237
-0.031910665 0.69999999 0.0036819996 5.7038873e-39 294 237
-0.030595668 0.69800001 0.0036714801 5.5191373e-39 295 237
-0.029371841 0.69800001 0.0036714801 5.5194932e-39 296 237
-0.028107686 0.69700003 0.00366622 5.6116889e-39 297 237
-0.026885614 0.69700003 0.00366622 5.6124105e-39 298 237
-0.025626717 0.69599998 0.0036609597 5.7046076e-39 299 237
-0.0244064 0.69599998 0.0036609597 5.3372628e-39 300 237
-0.023186078 0.69599998 0.0036609597 5.3372628e-39 301 237
-0.021965759 0.69599998 0.0036609597 5.0610332e-39 302 237
-0.020745439 0.69599998 0.0036609597 4.7844463e-39 303 237
-0.019525118 0.69599998 0.0036609597 4.7815723e-39 304 237
-0.0182522 0.69400001 0.0036504399 4.6893766e-39 305 237
-0.017035386 0.69400001 0.0036504399 4.597181e-39 306 237
-0.015818574 0.69400001 0.0036504399 4.597181e-39 307 237
-0.01460176 0.69400001 0.0036504399 4.6886578e-39 308 237
-0.01336566 0.69300002 0.0036451798 4.6886578e-39 309 237
-0.012150601 0.69300002 0.0036451798 4.8719728e-39 310 237
-0.01095132 0.69400001 0.0036504399 4.9641685e-39 311 237
-0.0097204801 0.69300002 0.0036451798 5.0563641e-39 312 237
-0.0085054198 0.69300002 0.0036451798 5.1485597e-39 313 237
-0.0073008798 0.69400001 0.0036504399 5.0574389e-39 314 237
-0.0060840664 0.69400001 0.0036504399 5.0574389e-39 315 237
-0.0048672534 0.69400001 0.0036504399 4.9648873e-39 316 237
-0.0036504399 0.69400001 0.0036504399 4.7808562e-39 317 237
-0.0024336267 0.69400001 0.0036504399 4.6893794e-39 318 237
-0.0012168133 0.69400001 0.0036504399 4.6893794e-39 319 237
0 0.69400001 0.0036504399 4.4142317e-39 320 237
0.0012203199 0.69599998 0.0036609597 4.4142317e-39 321 237
0.0024406398 0.69599998 0.0036609597 4.2309194e-39 322 237
0.0036609597 0.69599998 0.0036609597 4.3231151e-39 323 237
0.0048672534 0.69400001 0.0036504399 4.3238367e-39 324 237
0.0060840664 0.69400001 0.0036504399 4.4160324e-39 325 237
0.00733244 0.69700003 0.00366622 4.1412433e-39 326 237
0.0085667865 0.69800001 0.0036714801 3.9572122e-39 327 237
0.0098186666 0.69999999 0.0036819996 3.7742601e-39 328 237
0.011045999 0.69999999 0.0036819996 3.5898688e-39 329 237
0.012290866 0.70099998 0.0036872597 3.7742601e-39 330 237
0.013519952 0.70099998 0.0036872597 3.7742601e-39 331 237
0.014791119 0.70300001 0.0036977797 4.1412433e-39 332 237
0.016023712 0.70300001 0.0036977797 4.233439e-39 333 237
0.017280852 0.704 0.0037030398 4.1426867e-39 334 237
0.018515198 0.704 0.0037030398 4.1426867e-39 335 237
0.019805651 0.70599997 0.0037135598 4.1434055e-39 336 237
0.021073313 0.70700002 0.0037188199 4.3281555e-39 337 237
0.022312919 0.70700002 0.0037188199 4.5132643e-39 338 237
0.023585839 0.708 0.00372408 4.5132643e-39 339 237
0.024932399 0.71100003 0.0037398601 4.4207183e-39 340 237
0.026289478 0.71399999 0.0037556398 8.1089022e-39 341 237
-0.045067675 0.71399999 0.0025037599 1.2538959e-38 284 238
-0.043754432 0.713 0.0025002533 1.1801394e-38 285 238
-0.042385083 0.71100003 0.0024932399 1.2616404e-38 286 238
-0.041080594 0.70999998 0.0024897333 8.9285806e-39 287 238
-0.039723519 0.708 0.00248272 7.4599357e-39 288 238
-0.038427804 0.70700002 0.0024792133 6.8145663e-39 289 238
-0.037135597 0.70599997 0.0024757064 6.1702773e-39 290 238
-0.035796054 0.704 0.0024686933 5.6167434e-39 291 238
-0.034512613 0.70300001 0.0024651866 5.3379929e-39 292 238
-0.03318534 0.70099998 0.0024581731 5.2457972e-39 293 238
-0.031910665 0.69999999 0.0024546667 5.6120546e-39 294 238
-0.030595668 0.69800001 0.0024476533 5.519859e-39 295 238
-0.029371841 0.69800001 0.0024476533 5.336181e-39 296 238
-0.028107686 0.69700003 0.0024441467 5.5202121e-39 297 238
-0.026885614 0.69700003 0.0024441467 5.3369125e-39 298 238
-0.025626717 0.69599998 0.0024406398 5.6138595e-39 299 238
-0.0244064 0.69599998 0.0024406398 6.1656053e-39 300 238
-0.023186078 0.69599998 0.0024406398 6.1656053e-39 301 238
-0.021965759 0.69599998 0.0024406398 5.704623e-39 302 238
-0.020745439 0.69599998 0.0024406398 5.0592536e-39 303 238
-0.019525118 0.69599998 0.0024406398 5.0570858e-39 304 238
-0.0182522 0.69400001 0.0024336267 4.780859e-39 305 238
-0.017035386 0.69400001 0.0024336267 4.6893766e-39 306 238
-0.015818574 0.69400001 0.0024336267 4.6893766e-39 307 238
-0.01460176 0.69400001 0.0024336267 4.7808562e-39 308 238
-0.01336566 0.69300002 0.00243012 4.6886606e-39 309 238
-0.012150601 0.69300002 0.00243012 4.8712554e-39 310 238
-0.010935539 0.69300002 0.00243012 4.9634524e-39 311 238
-0.0097204801 0.69300002 0.00243012 4.8719756e-39 312 238
-0.0085054198 0.69300002 0.00243012 4.9641713e-39 313 238
-0.0072903596 0.69300002 0.00243012 4.7808562e-39 314 238
-0.0060753003 0.69300002 0.00243012 4.6886606e-39 315 238
-0.0048672534 0.69400001 0.0024336267 4.7797758e-39 316 238
-0.0036504399 0.69400001 0.0024336267 4.8719728e-39 317 238
-0.0024336267 0.69400001 0.0024336267 4.4127954e-39 318 238
-0.0012168133 0.69400001 0.0024336267 4.4127954e-39 319 238
0 0.69400001 0.0024336267 4.3213186e-39 320 238
0.0012203199 0.69599998 0.0024406398 4.4135156e-39 321 238
0.0024406398 0.69599998 0.0024406398 4.2305663e-39 322 238
0.00366622 0.69700003 0.0024441467 4.2305663e-39 323 238
0.0048672534 0.69400001 0.0024336267 4.3231207e-39 324 238
0.0060840664 0.69400001 0.0024336267 4.4153163e-39 325 238
0.00733244 0.69700003 0.0024441467 3.9572122e-39 326 238
0.0085667865 0.69800001 0.0024476533 3.8646579e-39 327 238
0.0098186666 0.69999999 0.0024546667 3.7731811e-39 328 238
0.011045999 0.69999999 0.0024546667 3.7731811e-39 329 238
0.012273333 0.69999999 0.0024546667 3.9568563e-39 330 238
0.013519952 0.70099998 0.0024581731 3.9568563e-39 331 238
0.014749039 0.70099998 0.0024581731 3.9568563e-39 332 238
0.016023712 0.70300001 0.0024651866 4.1408874e-39 333 238
0.017256306 0.70300001 0.0024651866 3.7749818e-39 334 238
0.018515198 0.704 0.0024686933 3.8671788e-39 335 238
0.019749546 0.704 0.0024686933 3.7757048e-39 336 238
0.021043506 0.70599997 0.0024757064 3.9600961e-39 337 238
0.022312919 0.70700002 0.0024792133 3.9618911e-39 338 238
0.023552528 0.70700002 0.0024792133 4.5150649e-39 339 238
0.024897331 0.70999998 0.0024897333 4.1441342e-39 340 238
0.026252659 0.713 0.0025002533 7.2787856e-39 341 238
-0.045004558 0.713 0.0012501266 1.2724073e-38 284 239
-0.043631699 0.71100003 0.00124662 1.3277245e-38 285 239
-0.042325463 0.70999998 0.0012448666 1.3545568e-38 286 239
-0.041080594 0.70999998 0.0012448666 7.7372428e-39 287 239
-0.039667413 0.70700002 0.0012396066 6.170643e-39 288 239
-0.038427804 0.70700002 0.0012396066 5.6174692e-39 289 239
-0.037135597 0.70599997 0.0012378532 5.8908163e-39 290 239
-0.035796054 0.704 0.0012343467 5.3376425e-39 291 239
-0.034414422 0.70099998 0.0012290865 5.5195087e-39 292 239
-0.03318534 0.70099998 0.0012290865 5.5195087e-39 293 239
-0.031910665 0.69999999 0.0012273333 5.3354719e-39 294 239
-0.030595668 0.69800001 0.0012238267 5.6120574e-39 295 239
-0.02932976 0.69700003 0.0012220733 5.3361908e-39 296 239
-0.028107686 0.69700003 0.0012220733 5.1517995e-39 297 239
-0.026885614 0.69700003 0.0012220733 4.9710208e-39 298 239
-0.025626717 0.69599998 0.0012203199 7.8294441e-39 299 239
-0.024336265 0.69400001 0.0012168133 9.3006253e-39 300 239
-0.023119451 0.69400001 0.0012168133 8.5630589e-39 301 239
-0.021965759 0.69599998 0.0012203199 6.8098944e-39 302 239
-0.020745439 0.69599998 0.0012203199 5.2429288e-39 303 239
-0.019525118 0.69599998 0.0012203199 4.9663321e-39 304 239
-0.0182522 0.69400001 0.0012168133 4.5979097e-39 305 239
-0.017035386 0.69400001 0.0012168133 4.5982628e-39 306 239
-0.015818574 0.69400001 0.0012168133 4.5060672e-39 307 239
-0.01460176 0.69400001 0.0012168133 4.7808562e-39 308 239
-0.01336566 0.69300002 0.00121506 4.6886606e-39 309 239
-0.012150601 0.69300002 0.00121506 4.6886606e-39 310 239
-0.010935539 0.69300002 0.00121506 4.7808562e-39 311 239
-0.0097204801 0.69300002 0.00121506 4.7815751e-39 312 239
-0.0085054198 0.69300002 0.00121506 4.7815751e-39 313 239
-0.0072903596 0.69300002 0.00121506 4.7808534e-39 314 239
-0.0060753003 0.69300002 0.00121506 4.6886578e-39 315 239
-0.0048672534 0.69400001 0.0012168133 4.779773e-39 316 239
-0.0036504399 0.69400001 0.0012168133 4.87197e-39 317 239
-0.0024336267 0.69400001 0.0012168133 4.3216717e-39 318 239
-0.0012168133 0.69400001 0.0012168133 4.3216717e-39 319 239
0 0.69400001 0.0012168133 4.1380035e-39 320 239
0.0012168133 0.69400001 0.0012168133 4.2302006e-39 321 239
0.0024406398 0.69599998 0.0012203199 4.2302006e-39 322 239
0.00366622 0.69700003 0.0012220733 4.4142317e-39 323 239
0.0048672534 0.69400001 0.0012168133 4.2316411e-39 324 239
0.0060840664 0.69400001 0.0012168133 4.3238367e-39 325 239
0.00733244 0.69700003 0.0012220733 4.1408874e-39 326 239
0.0085667865 0.69800001 0.0012238267 3.9568563e-39 327 239
0.0097906133 0.69800001 0.0012238267 3.7731839e-39 328 239
0.011045999 0.69999999 0.0012273333 3.8653795e-39 329 239
0.012273333 0.69999999 0.0012273333 3.7731839e-39 330 239
0.013500666 0.69999999 0.0012273333 3.6809883e-39 331 239
0.014749039 0.70099998 0.0012290865 3.9568563e-39 332 239
0.015978126 0.70099998 0.0012290865 3.8646607e-39 333 239
0.017256306 0.70300001 0.0012325933 3.8653767e-39 334 239
0.018515198 0.704 0.0012343467 3.8653767e-39 335 239
0.019749546 0.704 0.0012343467 3.6827833e-39 336 239
0.021043506 0.70599997 0.0012378532 3.8675347e-39 337 239
0.022312919 0.70700002 0.0012396066 4.3281527e-39 338 239
0.023552528 0.70700002 0.0012396066 4.6972954e-39 339 239
0.024897331 0.70999998 0.0012448666 4.2366858e-39 340 239
0.026142199 0.70999998 0.0012448666 6.7259678e-39 341 239
-0.045004558 0.713 -0 1.2540405e-38 284 240
-0.043631699 0.71100003 -0 1.346236e-38 285 240
-0.042325463 0.70999998 -0 1.3186509e-38 286 240
-0.040964879 0.708 -0 5.5346301e-39 287 240
-0.039667413 0.70700002 -0 4.6958857e-39 288 240
-0.038427804 0.70700002 -0 4.5114944e-39 289 240
-0.037135597 0.70599997 -0 5.1539701e-39 290 240
-0.035796054 0.704 -0 4.7851876e-39 291 240
-0.034414422 0.70099998 -0 4.7833926e-39 292 240
-0.033137999 0.69999999 -0 4.7833926e-39 293 240
-0.031910665 0.69999999 -0 4.9688558e-39 294 240
-0.030595668 0.69800001 -0 5.1532471e-39 295 240
-0.02932976 0.69700003 -0 5.706774e-39 296 240
-0.028107686 0.69700003 -0 5.8911666e-39 297 240
-0.026847038 0.69599998 -0 6.1731611e-39 298 240
-0.025626717 0.69599998 -0 1.0045376e-38 299 240
-0.024336265 0.69400001 -0 1.2163727e-38 300 240
-0.023119451 0.69400001 -0 8.9368804e-39 301 240
-0.021965759 0.69599998 -0 6.5394241e-39 302 240
-0.020745439 0.69599998 -0 4.2345348e-39 303 240
-0.019525118 0.69599998 -0 4.6904613e-39 304 240
-0.0182522 0.69400001 -0 4.5979069e-39 305 240
-0.017035386 0.69400001 -0 4.6893766e-39 306 240
-0.015818574 0.69400001 -0 4.6893766e-39 307 240
-0.01460176 0.69400001 -0 4.6886606e-39 308 240
-0.01336566 0.69300002 -0 4.6886606e-39 309 240
-0.012150601 0.69300002 -0 4.6893794e-39 310 240
-0.010935539 0.69300002 -0 4.7815751e-39 311 240
-0.0097204801 0.69300002 -0 4.7815723e-39 312 240
-0.0085054198 0.69300002 -0 4.7815723e-39 313 240
-0.0072903596 0.69300002 -0 4.7808534e-39 314 240
-0.0060753003 0.69300002 -0 4.5964607e-39 315 240
-0.0048672534 0.69400001 -0 4.6886578e-39 316 240
-0.0036504399 0.69400001 -0 4.6886578e-39 317 240
-0.0024336267 0.69400001 -0 4.3216717e-39 318 240
-0.0012168133 0.69400001 -0 4.3216717e-39 319 240
0 0.69400001 -0 4.0465268e-39 320 240
0.0012168133 0.69400001 -0 4.0465268e-39 321 240
0.0024336267 0.69400001 -0 4.2309222e-39 322 240
0.0036609597 0.69599998 -0 4.3231179e-39 323 240
0.0048672534 0.69400001 -0 4.4153135e-39 324 240
0.0060840664 0.69400001 -0 4.5075091e-39 325 240
0.00733244 0.69700003 -0 4.1412433e-39 326 240
0.0085667865 0.69800001 -0 3.9572122e-39 327 240
0.0097906133 0.69800001 -0 3.8653795e-39 328 240
0.011045999 0.69999999 -0 3.7731839e-39 329 240
0.012273333 0.69999999 -0 3.7731839e-39 330 240
0.013500666 0.69999999 -0 3.7731839e-39 331 240
0.014727999 0.69999999 -0 3.6809883e-39 332 240
0.015978126 0.70099998 -0 3.7731839e-39 333 240
0.017256306 0.70300001 -0 3.5898716e-39 334 240
0.018515198 0.704 -0 3.5898716e-39 335 240
0.019749546 0.704 -0 3.3143707e-39 336 240
0.021043506 0.70599997 -0 3.4991207e-39 337 240
0.022312919 0.70700002 -0 3.7757048e-39 338 240
0.023552528 0.70700002 -0 4.6054655e-39 339 240
0.024897331 0.70999998 -0 4.0540938e-39 340 240
0.026142199 0.70999998 -0 6.9117982e-39 341 240
-0.043570329 0.70999998 -0.0012448666 1.2540776e-38 285 241
-0.042325463 0.70999998 -0.0012448666 1.2447156e-38 286 241
-0.040964879 0.708 -0.00124136 4.1491887e-39 287 241
-0.039667413 0.70700002 -0.0012396066 3.5895339e-39 288 241
-0.038427804 0.70700002 -0.0012396066 4.1427077e-39 289 241
-0.037135597 0.70599997 -0.0012378532 5.0592508e-39 290 241
-0.035796054 0.704 -0.0012343467 4.7830226e-39 291 241
-0.034414422 0.70099998 -0.0012290865 4.5986314e-39 292 241
-0.033137999 0.69999999 -0.0012273333 4.690827e-39 293 241
-0.031819493 0.69800001 -0.0012238267 5.0588977e-39 294 241
-0.030595668 0.69800001 -0.0012238267 5.8890171e-39 295 241
-0.02932976 0.69700003 -0.0012220733 6.3539553e-39 296 241
-0.028107686 0.69700003 -0.0012220733 8.6592062e-39 297 241
-0.026847038 0.69599998 -0.0012203199 9.4940017e-39 298 241
-0.025626717 0.69599998 -0.0012203199 1.1245719e-38 299 241
-0.0244064 0.69599998 -0.0012203199 1.1339715e-38 300 241
-0.023186078 0.69599998 -0.0012203199 7.7437267e-39 301 241
-0.021965759 0.69599998 -0.0012203199 6.3550343e-39 302 241
-0.020685827 0.69400001 -0.0012168133 4.3267304e-39 303 241
-0.019469013 0.69400001 -0.0012168133 4.6004278e-39 304 241
-0.0182522 0.69400001 -0.0012168133 4.2312852e-39 305 241
-0.017035386 0.69400001 -0.0012168133 4.6886606e-39 306 241
-0.015818574 0.69400001 -0.0012168133 4.5964636e-39 307 241
-0.01460176 0.69400001 -0.0012168133 4.5964607e-39 308 241
-0.01336566 0.69300002 -0.00121506 4.5964607e-39 309 241
-0.012150601 0.69300002 -0.00121506 4.6886578e-39 310 241
-0.010935539 0.69300002 -0.00121506 4.7808534e-39 311 241
-0.0085054198 0.69300002 -0.00121506 4.7815723e-39 313 241
-0.0048672534 0.69400001 -0.0012168133 4.5961076e-39 316 241
-0.0036451798 0.69300002 -0.00121506 4.5961076e-39 317 241
-0.00243012 0.69300002 -0.00121506 4.3213158e-39 318 241
-0.00121506 0.69300002 -0.00121506 4.2291202e-39 319 241
0 0.69300002 -0.00121506 4.0458079e-39 320 241
0.0012168133 0.69400001 -0.0012168133 4.2302006e-39 321 241
0.0024336267 0.69400001 -0.0012168133 4.2302006e-39 322 241
0.0036504399 0.69400001 -0.0012168133 4.5067861e-39 323 241
0.0048672534 0.69400001 -0.0012168133 4.3238339e-39 324 241
0.0060840664 0.69400001 -0.0012168133 4.4163883e-39 325 241
0.00733244 0.69700003 -0.0012220733 3.7742601e-39 326 241
0.0085545136 0.69700003 -0.0012220733 3.6820645e-39 327 241
0.0097906133 0.69800001 -0.0012238267 3.8646607e-39 328 241
0.01101444 0.69800001 -0.0012238267 3.8646607e-39 329 241
0.012238266 0.69800001 -0.0012238267 3.7731811e-39 330 241
0.013500666 0.69999999 -0.0012273333 3.7731811e-39 331 241
0.014727999 0.69999999 -0.0012273333 3.6809827e-39 332 241
0.015978126 0.70099998 -0.0012290865 3.6809827e-39 333 241
0.017256306 0.70300001 -0.0012325933 3.4976732e-39 334 241
0.018515198 0.704 -0.0012343467 3.4976732e-39 335 241
0.019749546 0.704 -0.0012343467 3.4966012e-39 336 241
0.021043506 0.70599997 -0.0012378532 3.6806323e-39 337 241
0.022312919 0.70700002 -0.0012396066 3.958294e-39 338 241
0.023552528 0.70700002 -0.0012396066 4.4196323e-39 339 241
0.024827199 0.708 -0.00124136 3.6845854e-39 340 241
0.026142199 0.70999998 -0.0012448666 7.4646048e-39 341 241
-0.043570329 0.70999998 -0.0024897333 1.2169117e-38 285 242
-0.042325463 0.70999998 -0.0024897333 1.1432643e-38 286 242
-0.040964879 0.708 -0.00248272 2.9506455e-39 287 242
-0.039667413 0.70700002 -0.0024792133 3.5866613e-39 288 242
-0.038427804 0.70700002 -0.0024792133 4.5089763e-39 289 242
-0.037135597 0.70599997 -0.0024757064 4.7826667e-39 290 242
-0.035796054 0.704 -0.0024686933 4.5982754e-39 291 242
-0.034414422 0.70099998 -0.0024581731 4.4138814e-39 292 242
-0.033137999 0.69999999 -0.0024546667 4.506077e-39 293 242
-0.031819493 0.69800001 -0.0024476533 4.5082448e-39 294 242
-0.030595668 0.69800001 -0.0024476533 5.6149511e-39 295 242
-0.02932976 0.69700003 -0.0024441467 6.9089297e-39 296 242
-0.028107686 0.69700003 -0.0024441467 9.6748e-39 297 242
-0.026847038 0.69599998 -0.0024406398 1.1336112e-38 298 242
-0.025626717 0.69599998 -0.0024406398 1.1520864e-38 299 242
-0.0244064 0.69599998 -0.0024406398 9.3146481e-39 300 242
-0.023186078 0.69599998 -0.0024406398 4.7048666e-39 301 242
-0.021965759 0.69599998 -0.0024406398 5.8000654e-39 302 242
-0.020685827 0.69400001 -0.0024336267 4.5093266e-39 303 242
-0.019469013 0.69400001 -0.0024336267 4.7833757e-39 304 242
-0.0182522 0.69400001 -0.0024336267 4.4142345e-39 305 242
-0.017035386 0.69400001 -0.0024336267 4.5964636e-39 306 242
-0.015818574 0.69400001 -0.0024336267 4.5964636e-39 307 242
-0.014580719 0.69300002 -0.00243012 4.5964636e-39 308 242
-0.01336566 0.69300002 -0.00243012 4.5964636e-39 309 242
-0.0097204801 0.69300002 -0.00243012 4.6893794e-39 312 242
-0.00486024 0.69300002 -0.00243012 4.3205997e-39 316 242
-0.0036451798 0.69300002 -0.00243012 4.3205997e-39 317 242
-0.00243012 0.69300002 -0.00243012 3.9532563e-39 318 242
-0.00121506 0.69300002 -0.00243012 4.0458107e-39 319 242
0 0.69300002 -0.00243012 4.0458107e-39 320 242
0.0012168133 0.69400001 -0.0024336267 4.0458107e-39 321 242
0.0024336267 0.69400001 -0.0024336267 4.1387266e-39 322 242
0.0036504399 0.69400001 -0.0024336267 4.2309222e-39 323 242
0.0048672534 0.69400001 -0.0024336267 4.2316383e-39 324 242
0.0060840664 0.69400001 -0.0024336267 4.4163883e-39 325 242
0.00733244 0.69700003 -0.0024441467 3.9579283e-39 326 242
0.0085545136 0.69700003 -0.0024441467 3.8657326e-39 327 242
0.0097765867 0.69700003 -0.0024441467 3.8646579e-39 328 242
0.01101444 0.69800001 -0.0024476533 3.8646579e-39 329 242
0.012238266 0.69800001 -0.0024476533 3.7728182e-39 330 242
0.013500666 0.69999999 -0.0024546667 3.8650138e-39 331 242
0.014727999 0.69999999 -0.0024546667 3.6809827e-39 332 242
0.015978126 0.70099998 -0.0024581731 3.6809827e-39 333 242
0.017256306 0.70300001 -0.0024651866 3.4969543e-39 334 242
0.018515198 0.704 -0.0024686933 3.4047573e-39 335 242
0.019749546 0.704 -0.0024686933 3.3122085e-39 336 242
0.021043506 0.70599997 -0.0024757064 3.4044042e-39 337 242
0.022281358 0.70599997 -0.0024757064 3.2232541e-39 338 242
0.023552528 0.70700002 -0.0024792133 3.6842323e-39 339 242
0.024792133 0.70700002 -0.0024792133 3.7757048e-39 340 242
0.026142199 0.70999998 -0.0024897333 8.1088994e-39 341 242
-0.045004558 0.713 -0.0037503797 1.1154955e-38 284 243
-0.043570329 0.70999998 -0.0037345996 1.1984356e-38 285 243
-0.042325463 0.70999998 -0.0037345996 1.032917e-38 286 243
-0.040964879 0.708 -0.00372408 1.7549764e-39 287 243
-0.039667413 0.70700002 -0.0037188199 3.6770576e-39 288 243
-0.038427804 0.70700002 -0.0037188199 4.5071784e-39 289 243
-0.037030395 0.704 -0.0037030398 4.5979125e-39 290 243
-0.035796054 0.704 -0.0037030398 4.5053581e-39 291 243
-0.034414422 0.70099998 -0.0036872597 4.3209627e-39 292 243
-0.033137999 0.69999999 -0.0036819996 4.4135184e-39 293 243
-0.031819493 0.69800001 -0.0036714801 4.4153289e-39 294 243
-0.030595668 0.69800001 -0.0036714801 5.6138721e-39 295 243
-0.02932976 0.69700003 -0.00366622 6.6337876e-39 296 243
-0.028107686 0.69700003 -0.00366622 9.8606346e-39 297 243
-0.026847038 0.69599998 -0.0036609597 1.2349192e-38 298 243
-0.025626717 0.69599998 -0.0036609597 1.0966258e-38 299 243
-0.0244064 0.69599998 -0.0036609597 7.5578935e-39 300 243
-0.023186078 0.69599998 -0.0036609597 3.685677e-39 301 243
-0.021965759 0.69599998 -0.0036609597 5.0610542e-39 302 243
-0.020745439 0.69599998 -0.0036609597 4.6922731e-39 303 243
-0.019525118 0.69599998 -0.0036609597 4.6904613e-39 304 243
-0.018304799 0.69599998 -0.0036609597 4.4135156e-39 305 243
-0.017084479 0.69599998 -0.0036609597 4.5964607e-39 306 243
-0.015818574 0.69400001 -0.0036504399 4.5042651e-39 307 243
-0.014580719 0.69300002 -0.0036451798 4.3209529e-39 308 243
-0.01336566 0.69300002 -0.0036451798 4.4131485e-39 309 243
-0.012150601 0.69300002 -0.0036451798 4.5964607e-39 310 243
-0.0060840664 0.69400001 -0.0036504399 4.5964607e-39 315 243
-0.00486024 0.69300002 -0.0036451798 4.5042651e-39 316 243
-0.0036451798 0.69300002 -0.0036451798 4.4120695e-39 317 243
-0.00243012 0.69300002 -0.0036451798 4.045089e-39 318 243
-0.00121506 0.69300002 -0.0036451798 4.045089e-39 319 243
0 0.69300002 -0.0036451798 3.9536123e-39 320 243
0.00121506 0.69300002 -0.0036451798 4.0458079e-39 321 243
0.00243012 0.69300002 -0.0036451798 4.0458107e-39 322 243
0.0036504399 0.69400001 -0.0036504399 4.1380063e-39 323 243
0.0048672534 0.69400001 -0.0036504399 3.9550556e-39 324 243
0.0060840664 0.69400001 -0.0036504399 4.2316411e-39 325 243
0.0073219193 0.69599998 -0.0036609597 3.7728182e-39 326 243
0.0085545136 0.69700003 -0.00366622 3.7728182e-39 327 243
0.0097765867 0.69700003 -0.00366622 3.4976704e-39 328 243
0.01101444 0.69800001 -0.0036714801 3.4976704e-39 329 243
0.012238266 0.69800001 -0.0036714801 3.4969515e-39 330 243
0.013500666 0.69999999 -0.0036819996 3.4969515e-39 331 243
0.014727999 0.69999999 -0.0036819996 3.5880696e-39 332 243
0.015978126 0.70099998 -0.0036872597 3.4958739e-39 333 243
0.017256306 0.70300001 -0.0036977797 3.4958739e-39 334 243
0.018515198 0.704 -0.0037030398 3.3118428e-39 335 243
0.019749546 0.704 -0.0037030398 3.1278145e-39 336 243
0.021043506 0.70599997 -0.0037135598 3.3122057e-39 337 243
0.022281358 0.70599997 -0.0037135598 3.2236072e-39 338 243
0.023552528 0.70700002 -0.0037188199 3.4076384e-39 339 243
0.024792133 0.70700002 -0.0037188199 3.4994711e-39 340 243
0.026068559 0.708 -0.00372408 9.0308501e-39 341 243
-0.046319555 0.71399999 -0.0050075199 1.1523009e-38 283 244
-0.045004558 0.713 -0.0050005065 1.1156393e-38 284 244
-0.043631699 0.71100003 -0.0049864799 1.1340786e-38 285 244
-0.042325463 0.70999998 -0.0049794666 9.4994093e-39 286 244
-0.040964879 0.708 -0.0049654399 7.4118319e-40 287 244
-0.039667413 0.70700002 -0.0049584266 3.5837774e-39 288 244
-0.038373452 0.70599997 -0.0049514128 4.5053735e-39 289 244
-0.037030395 0.704 -0.0049373866 4.4135184e-39 290 244
-0.035796054 0.704 -0.0049373866 4.4135184e-39 291 244
-0.034414422 0.70099998 -0.0049163462 4.1380035e-39 292 244
-0.033137999 0.69999999 -0.0049093333 4.2302006e-39 293 244
-0.031819493 0.69800001 -0.0048953067 4.414966e-39 294 244
-0.030595668 0.69800001 -0.0048953067 5.5209548e-39 295 244
-0.02932976 0.69700003 -0.0048882933 5.80475e-39 296 244
-0.028107686 0.69700003 -0.0048882933 9.031597e-39 297 244
-0.026847038 0.69599998 -0.0048812795 1.087551e-38 298 244
-0.025626717 0.69599998 -0.0048812795 8.294032e-39 299 244
-0.0244064 0.69599998 -0.0048812795 6.0827662e-39 300 244
-0.023186078 0.69599998 -0.0048812795 3.6856798e-39 301 244
-0.021965759 0.69599998 -0.0048812795 5.3351216e-39 302 244
-0.020745439 0.69599998 -0.0048812795 4.9663377e-39 303 244
-0.019525118 0.69599998 -0.0048812795 4.5979069e-39 304 244
-0.0182522 0.69400001 -0.0048672534 4.4135156e-39 305 244
-0.017035386 0.69400001 -0.0048672534 4.4135128e-39 306 244
-0.015818574 0.69400001 -0.0048672534 4.3213158e-39 307 244
-0.01460176 0.69400001 -0.0048672534 4.4127926e-39 308 244
-0.013384946 0.69400001 -0.0048672534 4.4127926e-39 309 244
-0.012168133 0.69400001 -0.0048672534 4.5964607e-39 310 244
-0.0060840664 0.69400001 -0.0048672534 4.5042651e-39 315 244
-0.0048672534 0.69400001 -0.0048672534 4.3209529e-39 316 244
-0.0036451798 0.69300002 -0.00486024 4.2283985e-39 317 244
-0.00243012 0.69300002 -0.00486024 4.0450862e-39 318 244
-0.00121506 0.69300002 -0.00486024 4.0450862e-39 319 244
0 0.69300002 -0.00486024 3.8614166e-39 320 244
0.00121506 0.69300002 -0.00486024 3.9536123e-39 321 244
0.00243012 0.69300002 -0.00486024 3.7699441e-39 322 244
0.0036504399 0.69400001 -0.0048672534 4.0461708e-39 323 244
0.0048672534 0.69400001 -0.0048672534 3.8628586e-39 324 244
0.0060840664 0.69400001 -0.0048672534 3.9550556e-39 325 244
0.0073219193 0.69599998 -0.0048812795 3.4969515e-39 326 244
0.0085545136 0.69700003 -0.0048882933 3.4969515e-39 327 244
0.0097765867 0.69700003 -0.0048882933 3.4054748e-39 328 244
0.01101444 0.69800001 -0.0048953067 3.4054748e-39 329 244
0.012238266 0.69800001 -0.0048953067 3.4047573e-39 330 244
0.013500666 0.69999999 -0.0049093333 3.3125617e-39 331 244
0.014727999 0.69999999 -0.0049093333 3.3118428e-39 332 244
0.015978126 0.70099998 -0.0049163462 3.2192884e-39 333 244
0.017256306 0.70300001 -0.0049303733 3.2192884e-39 334 244
0.018515198 0.704 -0.0049373866 3.2192884e-39 335 244
0.019749546 0.704 -0.0049373866 2.8523038e-39 336 244
0.021043506 0.70599997 -0.0049514128 3.1288907e-39 337 244
0.022281358 0.70599997 -0.0049514128 3.2239632e-39 338 244
0.023552528 0.70700002 -0.0049584266 3.1314088e-39 339 244
0.024792133 0.70700002 -0.0049584266 3.4076258e-39 340 244
0.026068559 0.708 -0.0049654399 9.6769286e-39 341 244
-0.046319555 0.71399999 -0.0062593995 1.3180009e-38 283 245
-0.045004558 0.713 -0.0062506334 1.2077997e-38 284 245
-0.043631699 0.71100003 -0.0062330998 1.0326639e-38 285 245
-0.042325463 0.70999998 -0.0062243328 7.5650961e-39 286 245
-0.041080594 0.70999998 -0.0062243328 2.8164137e-40 287 245
-0.039667413 0.70700002 -0.0061980332 3.9521872e-39 288 245
-0.038373452 0.70599997 -0.0061892662 4.5053609e-39 289 245
-0.037030395 0.704 -0.0061717331 4.0461708e-39 290 245
-0.035745207 0.70300001 -0.0061629666 4.0461708e-39 291 245
-0.034414422 0.70099998 -0.0061454331 3.8621397e-39 292 245
-0.033137999 0.69999999 -0.0061366665 4.1387266e-39 293 245
